11.2324,-0.6308,-0.6574
11.2353,-0.6141,-0.6737
11.2337,-0.6307,-0.6740
11.2310,-0.6472,-0.6574
11.2300,-0.6633,-0.6568
11.2324,-0.6475,-0.6737
11.2309,-0.6632,-0.6740
11.2360,-0.6153,-0.6904
11.2346,-0.6302,-0.6899
11.2367,-0.6150,-0.7074
11.2355,-0.6308,-0.7076
11.2337,-0.6476,-0.6884
11.2334,-0.6477,-0.6959
11.2323,-0.6636,-0.6873
11.2313,-0.6636,-0.6947
11.2342,-0.6479,-0.7077
11.2334,-0.6641,-0.7082
11.2439,-0.5526,-0.7242
11.2426,-0.5674,-0.7239
11.2447,-0.5523,-0.7407
11.2441,-0.5670,-0.7400
11.2407,-0.5837,-0.7238
11.2393,-0.6002,-0.7244
11.2416,-0.5840,-0.7409
11.2402,-0.6002,-0.7410
11.2469,-0.5523,-0.7569
11.2455,-0.5679,-0.7555
11.2443,-0.5835,-0.7551
11.2479,-0.5532,-0.7753
11.2465,-0.5679,-0.7743
11.2413,-0.6010,-0.7587
11.2449,-0.5839,-0.7740
11.2429,-0.6004,-0.7742
11.2380,-0.6158,-0.7243
11.2366,-0.6313,-0.7239
11.2386,-0.6164,-0.7405
11.2376,-0.6320,-0.7393
11.2353,-0.6475,-0.7247
11.2333,-0.6647,-0.7250
11.2366,-0.6459,-0.7382
11.2353,-0.6485,-0.7445
11.2338,-0.6645,-0.7438
11.2400,-0.6171,-0.7593
11.2385,-0.6322,-0.7583
11.2411,-0.6169,-0.7753
11.2397,-0.6322,-0.7753
11.2382,-0.6476,-0.7578
11.2362,-0.6647,-0.7581
11.2392,-0.6475,-0.7749
11.2376,-0.6646,-0.7749
11.2285,-0.6787,-0.6573
11.2270,-0.6948,-0.6580
11.2302,-0.6784,-0.6736
11.2286,-0.6952,-0.6738
11.2259,-0.7097,-0.6575
11.2238,-0.7259,-0.6587
11.2267,-0.7107,-0.6731
11.2255,-0.7246,-0.6718
11.2248,-0.7267,-0.6779
11.2304,-0.6793,-0.6930
11.2290,-0.6955,-0.6922
11.2310,-0.6798,-0.7084
11.2298,-0.6957,-0.7085
11.2275,-0.7124,-0.6921
11.2265,-0.7275,-0.6911
11.2285,-0.7122,-0.7083
11.2269,-0.7273,-0.7084
11.2220,-0.7426,-0.6585
11.2209,-0.7579,-0.6587
11.2242,-0.7415,-0.6697
11.2234,-0.7429,-0.6780
11.2219,-0.7588,-0.6762
11.2196,-0.7736,-0.6571
11.2184,-0.7750,-0.6626
11.2178,-0.7890,-0.6559
11.2177,-0.7912,-0.6633
11.2205,-0.7757,-0.6759
11.2187,-0.7910,-0.6759
11.2250,-0.7422,-0.6923
11.2232,-0.7594,-0.6925
11.2255,-0.7423,-0.7082
11.2248,-0.7581,-0.7082
11.2216,-0.7755,-0.6927
11.2201,-0.7917,-0.6925
11.2228,-0.7749,-0.7071
11.2215,-0.7909,-0.7068
11.2222,-0.7759,-0.7155
11.2206,-0.7924,-0.7138
11.2324,-0.6801,-0.7250
11.2307,-0.6948,-0.7231
11.2291,-0.7108,-0.7223
11.2293,-0.6970,-0.7306
11.2323,-0.6806,-0.7428
11.2312,-0.6953,-0.7423
11.2282,-0.7140,-0.7291
11.2270,-0.7287,-0.7277
11.2298,-0.7121,-0.7424
11.2282,-0.7285,-0.7429
11.2346,-0.6808,-0.7588
11.2331,-0.6962,-0.7585
11.2359,-0.6817,-0.7743
11.2346,-0.6969,-0.7745
11.2318,-0.7119,-0.7592
11.2307,-0.7286,-0.7592
11.2332,-0.7116,-0.7742
11.2318,-0.7130,-0.7815
11.2319,-0.7277,-0.7722
11.2308,-0.7292,-0.7791
11.2251,-0.7439,-0.7278
11.2245,-0.7597,-0.7264
11.2262,-0.7451,-0.7434
11.2255,-0.7601,-0.7433
11.2227,-0.7752,-0.7265
11.2208,-0.7915,-0.7273
11.2236,-0.7751,-0.7436
11.2221,-0.7913,-0.7438
11.2290,-0.7452,-0.7598
11.2272,-0.7599,-0.7586
11.2306,-0.7435,-0.7719
11.2295,-0.7458,-0.7788
11.2278,-0.7620,-0.7773
11.2262,-0.7742,-0.7589
11.2240,-0.7910,-0.7563
11.2240,-0.7918,-0.7638
11.2264,-0.7766,-0.7770
11.2252,-0.7914,-0.7765
11.2144,-0.8060,-0.6301
11.2138,-0.8227,-0.6303
11.2146,-0.8053,-0.6424
11.2136,-0.8216,-0.6421
11.2122,-0.8389,-0.6301
11.2101,-0.8549,-0.6313
11.2118,-0.8365,-0.6410
11.2108,-0.8413,-0.6468
11.2091,-0.8560,-0.6458
11.2109,-0.8692,-0.6299
11.2089,-0.8861,-0.6296
11.2079,-0.8710,-0.6460
11.2063,-0.8862,-0.6444
11.2049,-0.9026,-0.6443
11.2040,-0.9181,-0.6443
11.2027,-0.9324,-0.6333
11.2015,-0.9499,-0.6329
11.2022,-0.9337,-0.6448
11.2007,-0.9503,-0.6449
11.2004,-0.9646,-0.6332
11.1988,-0.9809,-0.6332
11.1990,-0.9667,-0.6456
11.1972,-0.9819,-0.6450
11.1969,-0.9970,-0.6338
11.1961,-1.0145,-0.6329
11.1954,-0.9971,-0.6453
11.1946,-1.0132,-0.6440
11.1948,-1.0304,-0.6338
11.1936,-1.0458,-0.6340
11.1933,-1.0303,-0.6437
11.1925,-1.0458,-0.6430
11.1925,-1.0156,-0.6497
11.1923,-1.0304,-0.6501
11.1918,-1.0477,-0.6500
11.2159,-0.8058,-0.6608
11.2147,-0.8222,-0.6599
11.2172,-0.8063,-0.6760
11.2159,-0.8220,-0.6763
11.2126,-0.8382,-0.6602
11.2110,-0.8549,-0.6602
11.2144,-0.8384,-0.6768
11.2124,-0.8547,-0.6765
11.2190,-0.8069,-0.6927
11.2176,-0.8215,-0.6929
11.2201,-0.8071,-0.7036
11.2159,-0.8380,-0.6909
11.2138,-0.8532,-0.6894
11.2197,-0.8077,-0.7124
11.2184,-0.8228,-0.7111
11.2148,-0.8389,-0.6982
11.2132,-0.8561,-0.6971
11.2167,-0.8386,-0.7105
11.2143,-0.8546,-0.7111
11.2089,-0.8713,-0.6605
11.2073,-0.8872,-0.6612
11.2107,-0.8716,-0.6769
11.2089,-0.8866,-0.6756
11.2060,-0.9027,-0.6615
11.2050,-0.9182,-0.6617
11.2072,-0.9012,-0.6747
11.2066,-0.9180,-0.6745
11.2072,-0.9033,-0.6819
11.2060,-0.9201,-0.6813
11.2115,-0.8714,-0.6946
11.2094,-0.8876,-0.6954
11.2123,-0.8711,-0.7119
11.2100,-0.8878,-0.7115
11.2081,-0.9037,-0.6947
11.2072,-0.9191,-0.6947
11.2091,-0.9034,-0.7116
11.2082,-0.9191,-0.7116
11.2205,-0.8078,-0.7265
11.2190,-0.8242,-0.7271
11.2213,-0.8079,-0.7429
11.2199,-0.8240,-0.7429
11.2177,-0.8391,-0.7268
11.2158,-0.8547,-0.7279
11.2185,-0.8390,-0.7427
11.2176,-0.8533,-0.7412
11.2157,-0.8569,-0.7465
11.2225,-0.8079,-0.7621
11.2209,-0.8246,-0.7614
11.2234,-0.8078,-0.7777
11.2217,-0.8241,-0.7778
11.2191,-0.8408,-0.7606
11.2167,-0.8566,-0.7617
11.2200,-0.8405,-0.7778
11.2173,-0.8563,-0.7782
11.2139,-0.8705,-0.7279
11.2112,-0.8876,-0.7260
11.2112,-0.8876,-0.7342
11.2140,-0.8716,-0.7460
11.2117,-0.8873,-0.7459
11.2097,-0.9038,-0.7246
11.2098,-0.9043,-0.7330
11.2095,-0.9183,-0.7238
11.2085,-0.9200,-0.7321
11.2109,-0.9047,-0.7457
11.2098,-0.9199,-0.7456
11.2147,-0.8714,-0.7615
11.2131,-0.8878,-0.7621
11.2157,-0.8724,-0.7782
11.2146,-0.8869,-0.7768
11.2120,-0.9043,-0.7626
11.2106,-0.9203,-0.7630
11.2132,-0.9047,-0.7747
11.2126,-0.9037,-0.7830
11.2110,-0.9211,-0.7815
11.2035,-0.9339,-0.6614
11.2025,-0.9504,-0.6611
11.2007,-0.9655,-0.6598
11.1987,-0.9811,-0.6576
11.2043,-0.9351,-0.6795
11.2031,-0.9503,-0.6789
11.1998,-0.9685,-0.6655
11.1984,-0.9822,-0.6656
11.2008,-0.9666,-0.6789
11.1989,-0.9831,-0.6797
11.2053,-0.9346,-0.6957
11.2037,-0.9502,-0.6954
11.2063,-0.9355,-0.7117
11.2044,-0.9510,-0.7108
11.2023,-0.9665,-0.6958
11.2003,-0.9827,-0.6967
11.2031,-0.9659,-0.7098
11.2021,-0.9678,-0.7168
11.2007,-0.9832,-0.7142
11.1964,-0.9972,-0.6634
11.1953,-1.0136,-0.6632
11.1973,-0.9990,-0.6799
11.1960,-1.0138,-0.6802
11.1943,-1.0301,-0.6628
11.1938,-1.0466,-0.6631
11.1952,-1.0298,-0.6798
11.1951,-1.0463,-0.6797
11.1980,-0.9981,-0.6949
11.1971,-1.0143,-0.6947
11.1981,-0.9992,-0.7145
11.1974,-1.0156,-0.7138
11.1969,-1.0292,-0.6945
11.1958,-1.0305,-0.6997
11.1960,-1.0463,-0.6929
11.1955,-1.0458,-0.7008
11.1973,-1.0316,-0.7135
11.1974,-1.0471,-0.7127
11.2069,-0.9361,-0.7304
11.2055,-0.9520,-0.7297
11.2078,-0.9354,-0.7456
11.2061,-0.9523,-0.7462
11.2031,-0.9672,-0.7298
11.2016,-0.9830,-0.7295
11.2046,-0.9684,-0.7469
11.2024,-0.9828,-0.7455
11.2093,-0.9356,-0.7619
11.2080,-0.9508,-0.7610
11.2063,-0.9541,-0.7675
11.2095,-0.9366,-0.7810
11.2077,-0.9517,-0.7804
11.2061,-0.9669,-0.7588
11.2049,-0.9692,-0.7665
11.2022,-0.9844,-0.7643
11.2052,-0.9680,-0.7808
11.2030,-0.9844,-0.7813
11.1996,-0.9986,-0.7309
11.1982,-1.0155,-0.7303
11.2006,-0.9980,-0.7452
11.1989,-1.0153,-0.7441
11.1993,-1.0007,-0.7524
11.1988,-1.0150,-0.7505
11.1986,-1.0320,-0.7302
11.1984,-1.0470,-0.7298
11.1999,-1.0315,-0.7453
11.1994,-1.0478,-0.7447
11.1994,-1.0475,-0.7529
11.2003,-1.0001,-0.7653
11.2001,-1.0151,-0.7647
11.2011,-1.0009,-0.7817
11.2010,-1.0168,-0.7824
11.2005,-1.0313,-0.7641
11.2005,-1.0477,-0.7639
11.2014,-1.0313,-0.7804
11.2019,-1.0477,-0.7807
11.1933,-1.0615,-0.6341
11.1924,-1.0782,-0.6332
11.1910,-1.0772,-0.6409
11.1908,-1.0937,-0.6339
11.1912,-1.1084,-0.6332
11.1907,-1.0623,-0.6474
11.1899,-1.0771,-0.6486
11.1895,-1.0942,-0.6471
11.1888,-1.1104,-0.6469
11.1888,-1.1254,-0.6337
11.1872,-1.1262,-0.6465
11.1870,-1.1411,-0.6460
11.1862,-1.1572,-0.6459
11.1865,-1.1735,-0.6453
11.1933,-1.2063,-0.6424
11.1871,-1.1909,-0.6449
11.1931,-1.0631,-0.6629
11.1927,-1.0780,-0.6623
11.1942,-1.0631,-0.6797
11.1940,-1.0792,-0.6796
11.1924,-1.0939,-0.6621
11.1913,-1.1106,-0.6627
11.1935,-1.0948,-0.6790
11.1936,-1.1102,-0.6785
11.1958,-1.0627,-0.6942
11.1952,-1.0625,-0.7000
11.1958,-1.0793,-0.6942
11.1971,-1.0625,-0.7131
11.1971,-1.0791,-0.7117
11.1957,-1.0950,-0.6942
11.1952,-1.1095,-0.6944
11.1969,-1.0959,-0.7126
11.1973,-1.1120,-0.7125
11.1903,-1.1256,-0.6626
11.1897,-1.1413,-0.6623
11.1931,-1.1265,-0.6786
11.1923,-1.1422,-0.6781
11.1887,-1.1582,-0.6620
11.1892,-1.1741,-0.6616
11.1915,-1.1582,-0.6786
11.1927,-1.1742,-0.6777
11.1948,-1.1269,-0.6937
11.1944,-1.1421,-0.6921
11.1938,-1.1442,-0.6996
11.1971,-1.1269,-0.7116
11.1962,-1.1437,-0.7120
11.1942,-1.1588,-0.6936
11.1954,-1.1742,-0.6936
11.1966,-1.1586,-0.7111
11.1976,-1.1747,-0.7115
11.1986,-1.0623,-0.7293
11.1986,-1.0789,-0.7287
11.1997,-1.0629,-0.7448
11.1995,-1.0785,-0.7454
11.1985,-1.0961,-0.7288
11.1994,-1.1125,-0.7285
11.2001,-1.0958,-0.7445
11.2008,-1.1127,-0.7450
11.2005,-1.0648,-0.7635
11.2008,-1.0794,-0.7636
11.2017,-1.0643,-0.7802
11.2021,-1.0804,-0.7805
11.2010,-1.0951,-0.7629
11.2016,-1.1113,-0.7632
11.2024,-1.0958,-0.7785
11.2025,-1.1115,-0.7778
11.1990,-1.1281,-0.7279
11.1978,-1.1434,-0.7280
11.2006,-1.1277,-0.7448
11.2001,-1.1433,-0.7440
11.1985,-1.1590,-0.7269
11.2000,-1.1753,-0.7261
11.2002,-1.1597,-0.7437
11.2015,-1.1755,-0.7428
11.2014,-1.1445,-0.7558
11.2011,-1.1287,-0.7632
11.2011,-1.1439,-0.7634
11.2025,-1.1284,-0.7779
11.2024,-1.1443,-0.7780
11.2021,-1.1614,-0.7567
11.2036,-1.1765,-0.7581
11.2017,-1.1596,-0.7632
11.2036,-1.1600,-0.7770
11.2048,-1.1758,-0.7764
11.1909,-1.1903,-0.6609
11.1929,-1.2031,-0.6599
11.1937,-1.1903,-0.6770
11.1956,-1.2032,-0.6755
11.1964,-1.1899,-0.6924
11.1989,-1.2030,-0.6922
11.1992,-1.1919,-0.7081
11.2022,-1.2028,-0.7079
11.2012,-1.1910,-0.7263
11.2030,-1.1913,-0.7420
11.2053,-1.2026,-0.7408
11.2047,-1.1921,-0.7584
11.2070,-1.2035,-0.7577
11.2059,-1.1911,-0.7769
11.2832,-0.3161,-0.7815
11.2847,-0.3150,-0.7978
11.2774,-0.3291,-0.7834
11.2714,-0.3471,-0.7866
11.2779,-0.3315,-0.8020
11.2720,-0.3469,-0.8031
11.2837,-0.3166,-0.8172
11.2855,-0.3159,-0.8335
11.2792,-0.3306,-0.8179
11.2736,-0.3453,-0.8183
11.2803,-0.3287,-0.8331
11.2774,-0.3343,-0.8392
11.2731,-0.3475,-0.8372
11.2677,-0.3618,-0.7873
11.2662,-0.3767,-0.7879
11.2691,-0.3616,-0.8038
11.2673,-0.3769,-0.8041
11.2644,-0.3939,-0.7878
11.2624,-0.4093,-0.7875
11.2652,-0.3935,-0.8004
11.2643,-0.3945,-0.8090
11.2627,-0.4092,-0.8065
11.2696,-0.3621,-0.8223
11.2680,-0.3773,-0.8220
11.2703,-0.3622,-0.8377
11.2689,-0.3773,-0.8380
11.2655,-0.3940,-0.8219
11.2639,-0.4094,-0.8217
11.2674,-0.3942,-0.8384
11.2657,-0.4097,-0.8388
11.2876,-0.3131,-0.8482
11.2859,-0.3163,-0.8674
11.2796,-0.3313,-0.8524
11.2740,-0.3473,-0.8539
11.2808,-0.3312,-0.8692
11.2760,-0.3456,-0.8688
11.2740,-0.3516,-0.8746
11.2877,-0.3152,-0.8833
11.2887,-0.3136,-0.8986
11.2865,-0.3192,-0.9044
11.2823,-0.3294,-0.8839
11.2798,-0.3348,-0.8895
11.2759,-0.3478,-0.8876
11.2821,-0.3317,-0.9031
11.2770,-0.3482,-0.9046
11.2715,-0.3622,-0.8541
11.2704,-0.3778,-0.8533
11.2718,-0.3634,-0.8724
11.2711,-0.3788,-0.8726
11.2688,-0.3945,-0.8525
11.2677,-0.3944,-0.8607
11.2664,-0.4104,-0.8577
11.2696,-0.3948,-0.8720
11.2674,-0.4105,-0.8732
11.2732,-0.3636,-0.8887
11.2721,-0.3784,-0.8882
11.2741,-0.3643,-0.9053
11.2730,-0.3796,-0.9044
11.2702,-0.3952,-0.8889
11.2685,-0.4113,-0.8891
11.2714,-0.3937,-0.9033
11.2703,-0.4092,-0.9013
11.2710,-0.3976,-0.9104
11.2693,-0.4133,-0.9078
11.2607,-0.4244,-0.7878
11.2590,-0.4410,-0.7868
11.2572,-0.4559,-0.7853
11.2611,-0.4243,-0.8064
11.2598,-0.4417,-0.8061
11.2565,-0.4595,-0.7913
11.2555,-0.4740,-0.7914
11.2576,-0.4585,-0.8053
11.2562,-0.4745,-0.8068
11.2623,-0.4248,-0.8226
11.2608,-0.4421,-0.8229
11.2640,-0.4251,-0.8387
11.2623,-0.4416,-0.8378
11.2583,-0.4585,-0.8227
11.2569,-0.4747,-0.8235
11.2610,-0.4581,-0.8366
11.2604,-0.4596,-0.8436
11.2587,-0.4752,-0.8414
11.2538,-0.4885,-0.7900
11.2524,-0.5049,-0.7904
11.2548,-0.4896,-0.8060
11.2537,-0.5052,-0.8070
11.2511,-0.5213,-0.7904
11.2497,-0.5370,-0.7899
11.2520,-0.5214,-0.8070
11.2506,-0.5373,-0.8068
11.2562,-0.4897,-0.8226
11.2551,-0.5039,-0.8210
11.2535,-0.5068,-0.8285
11.2572,-0.4907,-0.8407
11.2560,-0.5059,-0.8405
11.2533,-0.5191,-0.8203
11.2525,-0.5227,-0.8265
11.2519,-0.5375,-0.8190
11.2513,-0.5378,-0.8270
11.2547,-0.5217,-0.8401
11.2532,-0.5379,-0.8411
11.2647,-0.4262,-0.8573
11.2630,-0.4424,-0.8559
11.2660,-0.4257,-0.8722
11.2644,-0.4423,-0.8725
11.2616,-0.4589,-0.8568
11.2598,-0.4753,-0.8564
11.2628,-0.4591,-0.8738
11.2608,-0.4753,-0.8735
11.2670,-0.4268,-0.8891
11.2656,-0.4419,-0.8878
11.2682,-0.4273,-0.9079
11.2665,-0.4427,-0.9066
11.2638,-0.4586,-0.8871
11.2635,-0.4601,-0.8943
11.2610,-0.4758,-0.8917
11.2646,-0.4592,-0.9065
11.2628,-0.4757,-0.9067
11.2587,-0.4906,-0.8574
11.2574,-0.5058,-0.8562
11.2597,-0.4915,-0.8734
11.2584,-0.5066,-0.8730
11.2557,-0.5217,-0.8568
11.2543,-0.5378,-0.8575
11.2570,-0.5208,-0.8717
11.2554,-0.5371,-0.8695
11.2566,-0.5238,-0.8786
11.2551,-0.5378,-0.8771
11.2602,-0.4921,-0.8915
11.2590,-0.5069,-0.8911
11.2614,-0.4919,-0.9069
11.2599,-0.5081,-0.9073
11.2576,-0.5225,-0.8912
11.2563,-0.5383,-0.8907
11.2586,-0.5241,-0.9079
11.2574,-0.5394,-0.9072
11.2884,-0.3164,-0.9179
11.2891,-0.3159,-0.9346
11.2829,-0.3320,-0.9196
11.2786,-0.3464,-0.9185
11.2848,-0.3286,-0.9332
11.2768,-0.3502,-0.9250
11.2824,-0.3348,-0.9391
11.2785,-0.3485,-0.9387
11.2967,-0.3054,-0.9497
11.2920,-0.3135,-0.9491
11.2888,-0.3190,-0.9547
11.2903,-0.3164,-0.9691
11.2851,-0.3324,-0.9540
11.2794,-0.3486,-0.9554
11.2851,-0.3324,-0.9708
11.2817,-0.3454,-0.9693
11.2793,-0.3510,-0.9741
11.2750,-0.3650,-0.9235
11.2733,-0.3800,-0.9231
11.2762,-0.3645,-0.9393
11.2744,-0.3799,-0.9395
11.2721,-0.3952,-0.9223
11.2703,-0.4120,-0.9226
11.2730,-0.3955,-0.9394
11.2717,-0.4125,-0.9395
11.2774,-0.3651,-0.9549
11.2762,-0.3800,-0.9548
11.2777,-0.3655,-0.9739
11.2762,-0.3804,-0.9731
11.2742,-0.3944,-0.9525
11.2734,-0.3967,-0.9600
11.2725,-0.4101,-0.9512
11.2723,-0.4132,-0.9587
11.2749,-0.3958,-0.9731
11.2732,-0.4125,-0.9738
11.2960,-0.3059,-0.9838
11.2913,-0.3161,-0.9855
11.2960,-0.3061,-1.0007
11.2911,-0.3176,-1.0048
11.2871,-0.3304,-0.9844
11.2855,-0.3339,-0.9894
11.2813,-0.3491,-0.9889
11.2865,-0.3331,-1.0048
11.2819,-0.3489,-1.0055
11.2961,-0.3064,-1.0193
11.2918,-0.3170,-1.0203
11.2974,-0.3053,-1.0360
11.2927,-0.3168,-1.0363
11.2871,-0.3330,-1.0214
11.2787,-0.3655,-0.9898
11.2771,-0.3807,-0.9897
11.2801,-0.3653,-1.0061
11.2785,-0.3802,-1.0042
11.2763,-0.3959,-0.9898
11.2741,-0.4126,-0.9908
11.2773,-0.3962,-1.0029
11.2819,-0.3508,-1.0246
11.2874,-0.3350,-1.0396
11.2834,-0.3495,-1.0399
11.2766,-0.3967,-1.0113
11.2749,-0.4136,-1.0094
11.2806,-0.3661,-1.0235
11.2792,-0.3815,-1.0235
11.2813,-0.3660,-1.0404
11.2798,-0.3825,-1.0411
11.2777,-0.3966,-1.0248
11.2759,-0.4129,-1.0245
11.2783,-0.3978,-1.0407
11.2769,-0.4128,-1.0407
11.2691,-0.4271,-0.9234
11.2676,-0.4429,-0.9233
11.2695,-0.4274,-0.9399
11.2684,-0.4422,-0.9383
11.2673,-0.4449,-0.9456
11.2655,-0.4592,-0.9230
11.2637,-0.4755,-0.9238
11.2667,-0.4585,-0.9363
11.2656,-0.4606,-0.9440
11.2655,-0.4734,-0.9361
11.2649,-0.4768,-0.9433
11.2705,-0.4279,-0.9581
11.2691,-0.4432,-0.9581
11.2718,-0.4279,-0.9737
11.2703,-0.4435,-0.9741
11.2670,-0.4597,-0.9573
11.2662,-0.4759,-0.9581
11.2683,-0.4597,-0.9745
11.2667,-0.4757,-0.9747
11.2623,-0.4917,-0.9238
11.2605,-0.5085,-0.9218
11.2598,-0.5085,-0.9297
11.2636,-0.4924,-0.9422
11.2613,-0.5086,-0.9417
11.2595,-0.5244,-0.9212
11.2589,-0.5251,-0.9285
11.2583,-0.5386,-0.9203
11.2576,-0.5401,-0.9271
11.2606,-0.5248,-0.9421
11.2588,-0.5406,-0.9418
11.2644,-0.4921,-0.9581
11.2627,-0.5085,-0.9582
11.2650,-0.4920,-0.9747
11.2635,-0.5091,-0.9727
11.2613,-0.5251,-0.9589
11.2598,-0.5409,-0.9588
11.2628,-0.5240,-0.9722
11.2727,-0.4280,-0.9889
11.2713,-0.4433,-0.9884
11.2702,-0.4594,-0.9874
11.2630,-0.5086,-0.9793
11.2615,-0.5262,-0.9784
11.2606,-0.5416,-0.9778
11.2731,-0.4294,-1.0072
11.2719,-0.4445,-1.0083
11.2692,-0.4605,-0.9951
11.2678,-0.4762,-0.9928
11.2704,-0.4602,-1.0086
11.2684,-0.4763,-1.0080
11.2742,-0.4294,-1.0243
11.2731,-0.4449,-1.0243
11.2754,-0.4293,-1.0403
11.2741,-0.4443,-1.0398
11.2712,-0.4603,-1.0255
11.2696,-0.4765,-1.0248
11.2730,-0.4589,-1.0384
11.2721,-0.4615,-1.0453
11.2704,-0.4766,-1.0432
11.2663,-0.4925,-0.9924
11.2645,-0.5090,-0.9916
11.2674,-0.4926,-1.0085
11.2657,-0.5091,-1.0084
11.2632,-0.5252,-0.9917
11.2611,-0.5413,-0.9930
11.2641,-0.5250,-1.0086
11.2627,-0.5412,-1.0094
11.2681,-0.4924,-1.0244
11.2674,-0.5084,-1.0238
11.2688,-0.4930,-1.0424
11.2675,-0.5092,-1.0427
11.2650,-0.5246,-1.0219
11.2650,-0.5259,-1.0295
11.2632,-0.5417,-1.0279
11.2664,-0.5253,-1.0424
11.2647,-0.5411,-1.0433
11.2487,-0.5537,-0.7899
11.2464,-0.5690,-0.7909
11.2494,-0.5539,-0.8060
11.2476,-0.5699,-0.8052
11.2472,-0.5705,-0.8133
11.2452,-0.5840,-0.7912
11.2437,-0.6002,-0.7914
11.2462,-0.5856,-0.8044
11.2453,-0.5855,-0.8115
11.2456,-0.6011,-0.8041
11.2441,-0.6003,-0.8111
11.2504,-0.5545,-0.8245
11.2482,-0.5705,-0.8244
11.2518,-0.5542,-0.8411
11.2500,-0.5706,-0.8408
11.2475,-0.5856,-0.8250
11.2456,-0.6007,-0.8250
11.2488,-0.5857,-0.8418
11.2469,-0.6005,-0.8416
11.2419,-0.6159,-0.7908
11.2405,-0.6335,-0.7895
11.2398,-0.6343,-0.7977
11.2423,-0.6171,-0.8086
11.2410,-0.6338,-0.8086
11.2389,-0.6487,-0.7883
11.2389,-0.6495,-0.7958
11.2383,-0.6643,-0.7878
11.2373,-0.6647,-0.7953
11.2398,-0.6490,-0.8090
11.2388,-0.6644,-0.8095
11.2438,-0.6168,-0.8251
11.2421,-0.6336,-0.8255
11.2454,-0.6167,-0.8414
11.2440,-0.6336,-0.8408
11.2405,-0.6488,-0.8261
11.2401,-0.6646,-0.8256
11.2426,-0.6490,-0.8398
11.2416,-0.6641,-0.8371
11.2416,-0.6516,-0.8470
11.2403,-0.6663,-0.8452
11.2529,-0.5543,-0.8575
11.2513,-0.5705,-0.8562
11.2535,-0.5549,-0.8753
11.2521,-0.5708,-0.8750
11.2494,-0.5859,-0.8547
11.2486,-0.6025,-0.8533
11.2490,-0.5880,-0.8615
11.2474,-0.6035,-0.8611
11.2502,-0.5871,-0.8748
11.2486,-0.6033,-0.8751
11.2546,-0.5546,-0.8913
11.2526,-0.5708,-0.8916
11.2556,-0.5540,-0.9075
11.2540,-0.5701,-0.9067
11.2529,-0.5728,-0.9132
11.2508,-0.5872,-0.8919
11.2495,-0.6030,-0.8919
11.2522,-0.5874,-0.9042
11.2515,-0.5873,-0.9117
11.2503,-0.6039,-0.9108
11.2463,-0.6186,-0.8598
11.2445,-0.6341,-0.8595
11.2475,-0.6184,-0.8762
11.2458,-0.6338,-0.8760
11.2430,-0.6502,-0.8594
11.2419,-0.6660,-0.8595
11.2436,-0.6505,-0.8762
11.2426,-0.6659,-0.8763
11.2481,-0.6184,-0.8928
11.2470,-0.6337,-0.8910
11.2491,-0.6197,-0.9107
11.2475,-0.6347,-0.9097
11.2453,-0.6500,-0.8904
11.2444,-0.6512,-0.8962
11.2429,-0.6667,-0.8958
11.2457,-0.6507,-0.9098
11.2441,-0.6675,-0.9102
11.2356,-0.6815,-0.7936
11.2343,-0.6970,-0.7939
11.2366,-0.6815,-0.8097
11.2346,-0.6985,-0.8096
11.2329,-0.7120,-0.7932
11.2311,-0.7287,-0.7931
11.2338,-0.7137,-0.8094
11.2322,-0.7284,-0.8099
11.2378,-0.6816,-0.8252
11.2364,-0.6977,-0.8254
11.2392,-0.6809,-0.8435
11.2376,-0.6986,-0.8432
11.2349,-0.7130,-0.8235
11.2337,-0.7166,-0.8298
11.2322,-0.7291,-0.8284
11.2357,-0.7145,-0.8434
11.2340,-0.7307,-0.8440
11.2297,-0.7446,-0.7937
11.2282,-0.7615,-0.7939
11.2306,-0.7449,-0.8096
11.2290,-0.7613,-0.8093
11.2265,-0.7777,-0.7945
11.2244,-0.7928,-0.7941
11.2281,-0.7752,-0.8084
11.2264,-0.7929,-0.8068
11.2265,-0.7797,-0.8144
11.2247,-0.7936,-0.8136
11.2306,-0.7449,-0.8276
11.2297,-0.7612,-0.8279
11.2330,-0.7459,-0.8436
11.2311,-0.7611,-0.8445
11.2280,-0.7774,-0.8278
11.2267,-0.7936,-0.8282
11.2294,-0.7773,-0.8441
11.2278,-0.7936,-0.8450
11.2397,-0.6811,-0.8599
11.2387,-0.6981,-0.8599
11.2411,-0.6815,-0.8758
11.2395,-0.6978,-0.8748
11.2392,-0.6992,-0.8830
11.2371,-0.7146,-0.8605
11.2354,-0.7311,-0.8605
11.2376,-0.7143,-0.8737
11.2377,-0.7148,-0.8817
11.2367,-0.7305,-0.8734
11.2357,-0.7314,-0.8792
11.2417,-0.6818,-0.8937
11.2402,-0.6980,-0.8943
11.2423,-0.6826,-0.9105
11.2412,-0.6980,-0.9110
11.2382,-0.7145,-0.8944
11.2365,-0.7311,-0.8939
11.2396,-0.7144,-0.9112
11.2377,-0.7310,-0.9107
11.2338,-0.7464,-0.8606
11.2323,-0.7618,-0.8590
11.2341,-0.7474,-0.8791
11.2330,-0.7622,-0.8777
11.2309,-0.7768,-0.8580
11.2303,-0.7783,-0.8654
11.2286,-0.7943,-0.8629
11.2314,-0.7776,-0.8782
11.2298,-0.7935,-0.8780
11.2350,-0.7471,-0.8952
11.2338,-0.7635,-0.8950
11.2366,-0.7468,-0.9102
11.2347,-0.7621,-0.9095
11.2322,-0.7795,-0.8947
11.2308,-0.7949,-0.8953
11.2336,-0.7786,-0.9076
11.2341,-0.7666,-0.9157
11.2330,-0.7806,-0.9155
11.2307,-0.7964,-0.9135
11.2560,-0.5548,-0.9255
11.2548,-0.5708,-0.9262
11.2573,-0.5558,-0.9415
11.2558,-0.5706,-0.9427
11.2527,-0.5873,-0.9260
11.2512,-0.6035,-0.9263
11.2542,-0.5871,-0.9429
11.2521,-0.6029,-0.9429
11.2582,-0.5558,-0.9580
11.2566,-0.5707,-0.9577
11.2554,-0.5856,-0.9556
11.2498,-0.6198,-0.9256
11.2480,-0.6355,-0.9272
11.2509,-0.6198,-0.9425
11.2493,-0.6349,-0.9417
11.2467,-0.6506,-0.9266
11.2452,-0.6673,-0.9273
11.2481,-0.6497,-0.9394
11.2587,-0.5576,-0.9761
11.2575,-0.5724,-0.9758
11.2547,-0.5886,-0.9626
11.2531,-0.6037,-0.9613
11.2558,-0.5877,-0.9763
11.2539,-0.6038,-0.9772
11.2481,-0.6387,-0.9483
11.2468,-0.6524,-0.9468
11.2456,-0.6669,-0.9461
11.2517,-0.6202,-0.9606
11.2501,-0.6367,-0.9600
11.2528,-0.6200,-0.9767
11.2511,-0.6367,-0.9769
11.2479,-0.6517,-0.9612
11.2466,-0.6674,-0.9608
11.2497,-0.6519,-0.9778
11.2478,-0.6673,-0.9774
11.2604,-0.5577,-0.9927
11.2584,-0.5725,-0.9926
11.2605,-0.5578,-1.0084
11.2594,-0.5739,-1.0063
11.2593,-0.5738,-1.0150
11.2571,-0.5875,-0.9929
11.2552,-0.6036,-0.9936
11.2581,-0.5890,-1.0066
11.2577,-0.5893,-1.0133
11.2569,-0.6032,-1.0052
11.2564,-0.6051,-1.0131
11.2615,-0.5576,-1.0266
11.2606,-0.5739,-1.0262
11.2630,-0.5578,-1.0435
11.2613,-0.5739,-1.0433
11.2586,-0.5894,-1.0270
11.2575,-0.6058,-1.0264
11.2601,-0.5906,-1.0435
11.2584,-0.6065,-1.0438
11.2540,-0.6194,-0.9932
11.2523,-0.6367,-0.9916
11.2520,-0.6366,-0.9998
11.2548,-0.6207,-1.0109
11.2534,-0.6371,-1.0110
11.2511,-0.6521,-0.9902
11.2504,-0.6521,-0.9983
11.2488,-0.6682,-0.9953
11.2513,-0.6534,-1.0109
11.2499,-0.6687,-1.0112
11.2555,-0.6214,-1.0279
11.2543,-0.6367,-1.0275
11.2567,-0.6209,-1.0440
11.2557,-0.6362,-1.0420
11.2549,-0.6379,-1.0490
11.2524,-0.6533,-1.0272
11.2512,-0.6685,-1.0279
11.2539,-0.6530,-1.0405
11.2538,-0.6538,-1.0482
11.2518,-0.6700,-1.0471
11.2436,-0.6826,-0.9269
11.2427,-0.6978,-0.9257
11.2406,-0.7132,-0.9233
11.2445,-0.6845,-0.9457
11.2426,-0.6996,-0.9447
11.2402,-0.7147,-0.9313
11.2384,-0.7317,-0.9296
11.2412,-0.7144,-0.9448
11.2398,-0.7308,-0.9452
11.2450,-0.6843,-0.9613
11.2437,-0.6996,-0.9615
11.2464,-0.6837,-0.9765
11.2448,-0.7005,-0.9758
11.2443,-0.7014,-0.9827
11.2422,-0.7148,-0.9610
11.2405,-0.7306,-0.9623
11.2431,-0.7157,-0.9730
11.2430,-0.7155,-0.9809
11.2418,-0.7309,-0.9811
11.2369,-0.7472,-0.9287
11.2355,-0.7639,-0.9290
11.2377,-0.7471,-0.9451
11.2360,-0.7635,-0.9458
11.2339,-0.7798,-0.9292
11.2321,-0.7958,-0.9296
11.2346,-0.7797,-0.9459
11.2332,-0.7957,-0.9462
11.2392,-0.7473,-0.9613
11.2378,-0.7624,-0.9606
11.2364,-0.7654,-0.9669
11.2402,-0.7468,-0.9788
11.2389,-0.7632,-0.9794
11.2360,-0.7796,-0.9583
11.2353,-0.7791,-0.9659
11.2340,-0.7954,-0.9645
11.2370,-0.7793,-0.9794
11.2351,-0.7955,-0.9796
11.2470,-0.6844,-0.9951
11.2457,-0.7006,-0.9946
11.2486,-0.6840,-1.0114
11.2468,-0.7006,-1.0116
11.2441,-0.7169,-0.9953
11.2423,-0.7325,-0.9963
11.2453,-0.7170,-1.0121
11.2439,-0.7327,-1.0120
11.2498,-0.6840,-1.0273
11.2477,-0.7005,-1.0262
11.2479,-0.7011,-1.0336
11.2509,-0.6856,-1.0459
11.2489,-0.7008,-1.0458
11.2466,-0.7155,-1.0246
11.2470,-0.7331,-1.0245
11.2460,-0.7180,-1.0320
11.2446,-0.7335,-1.0307
11.2480,-0.7169,-1.0457
11.2460,-0.7334,-1.0452
11.2411,-0.7473,-0.9954
11.2395,-0.7634,-0.9961
11.2425,-0.7477,-1.0115
11.2410,-0.7628,-1.0114
11.2381,-0.7793,-0.9964
11.2359,-0.7953,-0.9965
11.2400,-0.7768,-1.0105
11.2381,-0.7806,-1.0148
11.2369,-0.7955,-1.0145
11.2433,-0.7498,-1.0305
11.2415,-0.7655,-1.0298
11.2445,-0.7494,-1.0468
11.2429,-0.7658,-1.0458
11.2399,-0.7809,-1.0298
11.2386,-0.7961,-1.0294
11.2413,-0.7816,-1.0463
11.2391,-0.7975,-1.0460
11.3010,-0.3038,-1.0505
11.2928,-0.3181,-1.0550
11.2982,-0.3060,-1.0705
11.2937,-0.3178,-1.0706
11.2880,-0.3337,-1.0553
11.2839,-0.3497,-1.0564
11.2889,-0.3328,-1.0711
11.2840,-0.3504,-1.0743
11.3000,-0.3052,-1.0870
11.2949,-0.3166,-1.0858
11.2930,-0.3215,-1.0919
11.3024,-0.3032,-1.1012
11.2952,-0.3183,-1.1046
11.2892,-0.3347,-1.0906
11.2853,-0.3504,-1.0908
11.2902,-0.3344,-1.1066
11.2865,-0.3499,-1.1071
11.2822,-0.3661,-1.0565
11.2807,-0.3820,-1.0541
11.2802,-0.3835,-1.0619
11.2825,-0.3664,-1.0747
11.2814,-0.3828,-1.0745
11.2792,-0.3976,-1.0531
11.2790,-0.3980,-1.0611
11.2778,-0.4135,-1.0592
11.2805,-0.3982,-1.0743
11.2787,-0.4135,-1.0744
11.2831,-0.3665,-1.0914
11.2820,-0.3831,-1.0912
11.2837,-0.3658,-1.1045
11.2827,-0.3836,-1.1038
11.2837,-0.3678,-1.1126
11.2821,-0.3831,-1.1114
11.2814,-0.3983,-1.0907
11.2795,-0.4138,-1.0912
11.2824,-0.3975,-1.1039
11.2816,-0.3995,-1.1113
11.2801,-0.4141,-1.1088
11.3010,-0.3054,-1.1206
11.2956,-0.3184,-1.1219
11.3024,-0.3046,-1.1372
11.2969,-0.3166,-1.1359
11.2956,-0.3215,-1.1420
11.2916,-0.3338,-1.1214
11.2904,-0.3365,-1.1294
11.2870,-0.3513,-1.1255
11.2919,-0.3350,-1.1403
11.2885,-0.3509,-1.1417
11.3050,-0.3023,-1.1509
11.3012,-0.3065,-1.1579
11.2972,-0.3190,-1.1555
11.3033,-0.3049,-1.1714
11.2985,-0.3190,-1.1724
11.2934,-0.3349,-1.1567
11.2897,-0.3510,-1.1583
11.2948,-0.3347,-1.1726
11.2936,-0.3512,-1.1719
11.2919,-0.3519,-1.1764
11.2851,-0.3667,-1.1252
11.2836,-0.3834,-1.1254
11.2865,-0.3671,-1.1419
11.2851,-0.3836,-1.1418
11.2828,-0.3987,-1.1251
11.2818,-0.4141,-1.1249
11.2843,-0.3989,-1.1417
11.2839,-0.4142,-1.1415
11.2882,-0.3666,-1.1578
11.2862,-0.3836,-1.1552
11.2865,-0.3837,-1.1628
11.2907,-0.3680,-1.1751
11.2893,-0.3841,-1.1745
11.2862,-0.4007,-1.1558
11.2859,-0.4001,-1.1622
11.2856,-0.4159,-1.1531
11.2844,-0.4154,-1.1614
11.2877,-0.4001,-1.1753
11.2863,-0.4152,-1.1745
11.2761,-0.4302,-1.0584
11.2750,-0.4451,-1.0582
11.2773,-0.4301,-1.0750
11.2756,-0.4461,-1.0750
11.2731,-0.4605,-1.0593
11.2716,-0.4766,-1.0591
11.2740,-0.4611,-1.0758
11.2724,-0.4772,-1.0757
11.2785,-0.4300,-1.0908
11.2767,-0.4455,-1.0894
11.2760,-0.4481,-1.0971
11.2793,-0.4305,-1.1098
11.2772,-0.4472,-1.1090
11.2758,-0.4600,-1.0862
11.2745,-0.4623,-1.0947
11.2728,-0.4774,-1.0930
11.2756,-0.4634,-1.1093
11.2743,-0.4783,-1.1095
11.2699,-0.4929,-1.0588
11.2686,-0.5093,-1.0597
11.2711,-0.4936,-1.0747
11.2699,-0.5095,-1.0748
11.2685,-0.5095,-1.0805
11.2673,-0.5255,-1.0594
11.2656,-0.5411,-1.0594
11.2686,-0.5253,-1.0735
11.2670,-0.5414,-1.0710
11.2687,-0.5260,-1.0802
11.2669,-0.5416,-1.0785
11.2719,-0.4934,-1.0936
11.2708,-0.5095,-1.0933
11.2732,-0.4935,-1.1094
11.2723,-0.5094,-1.1100
11.2699,-0.5257,-1.0932
11.2685,-0.5416,-1.0926
11.2713,-0.5257,-1.1102
11.2694,-0.5416,-1.1092
11.2807,-0.4305,-1.1258
11.2789,-0.4474,-1.1255
11.2826,-0.4307,-1.1416
11.2809,-0.4469,-1.1415
11.2771,-0.4636,-1.1252
11.2760,-0.4796,-1.1262
11.2793,-0.4631,-1.1399
11.2788,-0.4655,-1.1459
11.2780,-0.4790,-1.1402
11.2769,-0.4806,-1.1444
11.2832,-0.4320,-1.1606
11.2822,-0.4478,-1.1592
11.2850,-0.4312,-1.1756
11.2835,-0.4481,-1.1760
11.2808,-0.4640,-1.1585
11.2796,-0.4802,-1.1591
11.2826,-0.4642,-1.1752
11.2819,-0.4804,-1.1754
11.2748,-0.4941,-1.1250
11.2742,-0.5096,-1.1260
11.2766,-0.4947,-1.1446
11.2758,-0.5099,-1.1439
11.2733,-0.5253,-1.1255
11.2717,-0.5410,-1.1235
11.2714,-0.5432,-1.1307
11.2741,-0.5262,-1.1433
11.2729,-0.5419,-1.1428
11.2783,-0.4948,-1.1596
11.2779,-0.5101,-1.1587
11.2801,-0.4966,-1.1762
11.2796,-0.5113,-1.1750
11.2764,-0.5262,-1.1594
11.2749,-0.5421,-1.1595
11.2780,-0.5270,-1.1756
11.2772,-0.5428,-1.1754
11.4270,-0.3218,-1.2256
11.3728,-0.3207,-1.2264
11.4096,-0.3385,-1.2264
11.4094,-0.3543,-1.2266
11.3896,-0.3544,-1.2265
11.3742,-0.3704,-1.2275
11.3740,-0.3860,-1.2279
11.4081,-0.4018,-1.2280
11.4068,-0.4190,-1.2285
11.3743,-0.4179,-1.2285
11.3044,-0.3041,-1.1874
11.3002,-0.3174,-1.1870
11.2992,-0.3223,-1.1923
11.3068,-0.3024,-1.2017
11.3040,-0.3072,-1.2065
11.3012,-0.3199,-1.2062
11.2967,-0.3359,-1.1908
11.2946,-0.3516,-1.1903
11.2990,-0.3357,-1.2063
11.2974,-0.3519,-1.2065
11.3417,-0.3209,-1.2258
11.3069,-0.3052,-1.2191
11.3050,-0.3200,-1.2205
11.3242,-0.3213,-1.2256
11.3390,-0.3370,-1.2261
11.3391,-0.3535,-1.2260
11.3036,-0.3359,-1.2205
11.3014,-0.3524,-1.2208
11.3235,-0.3361,-1.2255
11.3225,-0.3523,-1.2255
11.2934,-0.3678,-1.1906
11.2932,-0.3844,-1.1902
11.2959,-0.3682,-1.2067
11.2952,-0.3847,-1.2066
11.2901,-0.4010,-1.1915
11.2882,-0.4161,-1.1915
11.2929,-0.4010,-1.2078
11.2910,-0.4162,-1.2080
11.3369,-0.3700,-1.2267
11.3384,-0.3867,-1.2268
11.3008,-0.3681,-1.2210
11.3002,-0.3845,-1.2212
11.3215,-0.3850,-1.2262
11.3375,-0.4011,-1.2274
11.2979,-0.4015,-1.2220
11.2974,-0.4162,-1.2218
11.3196,-0.4017,-1.2266
11.3562,-0.4166,-1.2279
11.4582,-0.4361,-1.2273
11.4091,-0.4344,-1.2289
11.4089,-0.4490,-1.2289
11.3749,-0.4346,-1.2288
11.4085,-0.4667,-1.2299
11.3729,-0.4809,-1.2303
11.3912,-0.4834,-1.2301
11.4425,-0.5007,-1.2295
11.4580,-0.5321,-1.2293
11.3908,-0.4986,-1.2302
11.3896,-0.5148,-1.2309
11.3910,-0.5322,-1.2311
11.3910,-0.5476,-1.2312
11.2873,-0.4313,-1.1919
11.2856,-0.4482,-1.1922
11.2898,-0.4312,-1.2076
11.2882,-0.4474,-1.2054
11.2844,-0.4643,-1.1917
11.2832,-0.4802,-1.1920
11.2878,-0.4634,-1.2043
11.3375,-0.4334,-1.2279
11.2979,-0.4316,-1.2232
11.2974,-0.4468,-1.2240
11.3199,-0.4327,-1.2272
11.3223,-0.4505,-1.2276
11.3211,-0.4657,-1.2281
11.3211,-0.4818,-1.2288
11.2876,-0.4494,-1.2108
11.2862,-0.4651,-1.2107
11.2853,-0.4812,-1.2085
11.2917,-0.4318,-1.2211
11.2905,-0.4488,-1.2213
11.2903,-0.4650,-1.2218
11.2888,-0.4812,-1.2217
11.2820,-0.4959,-1.1911
11.2807,-0.5110,-1.1893
11.2798,-0.5247,-1.1874
11.3183,-0.4977,-1.2288
11.3213,-0.5127,-1.2295
11.3210,-0.5282,-1.2297
11.3041,-0.5289,-1.2291
11.3208,-0.5443,-1.2298
11.3022,-0.5441,-1.2294
11.2807,-0.5136,-1.1963
11.2838,-0.4970,-1.2097
11.2826,-0.5131,-1.2085
11.2790,-0.5298,-1.1947
11.2781,-0.5445,-1.1947
11.2814,-0.5290,-1.2088
11.2804,-0.5450,-1.2094
11.2876,-0.4967,-1.2228
11.2868,-0.5133,-1.2231
11.2858,-0.5290,-1.2233
11.2846,-0.5452,-1.2240
11.3559,-0.4336,-1.2286
11.3569,-0.4652,-1.2292
11.3561,-0.4808,-1.2298
11.3552,-0.4966,-1.2302
11.3583,-0.5140,-1.2304
11.3571,-0.5290,-1.2312
11.3553,-0.5462,-1.2312
11.2643,-0.5569,-1.0592
11.2629,-0.5735,-1.0581
11.2654,-0.5580,-1.0776
11.2637,-0.5742,-1.0769
11.2610,-0.5899,-1.0573
11.2601,-0.6061,-1.0563
11.2610,-0.5913,-1.0644
11.2597,-0.6067,-1.0640
11.2623,-0.5907,-1.0776
11.2607,-0.6066,-1.0775
11.2661,-0.5582,-1.0933
11.2650,-0.5741,-1.0937
11.2684,-0.5578,-1.1096
11.2671,-0.5741,-1.1102
11.2636,-0.5906,-1.0938
11.2622,-0.6064,-1.0944
11.2657,-0.5897,-1.1083
11.2648,-0.5924,-1.1146
11.2644,-0.6067,-1.1074
11.2634,-0.6062,-1.1142
11.2581,-0.6214,-1.0621
11.2566,-0.6366,-1.0612
11.2592,-0.6230,-1.0779
11.2580,-0.6382,-1.0777
11.2546,-0.6533,-1.0612
11.2539,-0.6701,-1.0615
11.2568,-0.6535,-1.0776
11.2552,-0.6703,-1.0781
11.2608,-0.6229,-1.0939
11.2594,-0.6388,-1.0936
11.2621,-0.6214,-1.1055
11.2621,-0.6236,-1.1128
11.2607,-0.6402,-1.1118
11.2579,-0.6533,-1.0924
11.2565,-0.6687,-1.0908
11.2561,-0.6712,-1.0981
11.2594,-0.6550,-1.1115
11.2577,-0.6704,-1.1120
11.2712,-0.5560,-1.1224
11.2693,-0.5591,-1.1283
11.2686,-0.5744,-1.1287
11.2716,-0.5583,-1.1429
11.2699,-0.5744,-1.1440
11.2670,-0.5907,-1.1271
11.2653,-0.6068,-1.1275
11.2686,-0.5908,-1.1436
11.2668,-0.6068,-1.1440
11.2731,-0.5584,-1.1597
11.2717,-0.5746,-1.1602
11.2755,-0.5585,-1.1755
11.2747,-0.5730,-1.1743
11.2705,-0.5908,-1.1602
11.2691,-0.6066,-1.1595
11.2728,-0.5900,-1.1732
11.2735,-0.5781,-1.1802
11.2723,-0.5917,-1.1791
11.2708,-0.6073,-1.1776
11.2633,-0.6231,-1.1277
11.2615,-0.6397,-1.1280
11.2653,-0.6231,-1.1442
11.2634,-0.6396,-1.1446
11.2605,-0.6549,-1.1282
11.2595,-0.6702,-1.1285
11.2619,-0.6545,-1.1439
11.2609,-0.6704,-1.1438
11.2676,-0.6218,-1.1595
11.2670,-0.6385,-1.1577
11.2653,-0.6403,-1.1628
11.2685,-0.6233,-1.1769
11.2673,-0.6397,-1.1776
11.2633,-0.6562,-1.1621
11.2623,-0.6718,-1.1619
11.2654,-0.6562,-1.1783
11.2640,-0.6720,-1.1780
11.2524,-0.6854,-1.0614
11.2504,-0.7005,-1.0625
11.2532,-0.6857,-1.0783
11.2518,-0.7009,-1.0777
11.2493,-0.7168,-1.0626
11.2476,-0.7332,-1.0618
11.2507,-0.7162,-1.0770
11.2501,-0.7188,-1.0849
11.2492,-0.7329,-1.0749
11.2486,-0.7334,-1.0821
11.2542,-0.6878,-1.0967
11.2529,-0.7027,-1.0962
11.2562,-0.6869,-1.1121
11.2551,-0.7032,-1.1127
11.2520,-0.7173,-1.0961
11.2504,-0.7332,-1.0956
11.2532,-0.7182,-1.1123
11.2521,-0.7332,-1.1125
11.2461,-0.7489,-1.0630
11.2449,-0.7654,-1.0609
11.2469,-0.7497,-1.0813
11.2455,-0.7659,-1.0795
11.2428,-0.7809,-1.0600
11.2424,-0.7827,-1.0671
11.2400,-0.7985,-1.0646
11.2442,-0.7816,-1.0798
11.2422,-0.7978,-1.0807
11.2486,-0.7494,-1.0959
11.2469,-0.7658,-1.0963
11.2509,-0.7492,-1.1120
11.2490,-0.7656,-1.1127
11.2455,-0.7816,-1.0967
11.2436,-0.7978,-1.0974
11.2477,-0.7815,-1.1124
11.2456,-0.7976,-1.1107
11.2451,-0.7976,-1.1185
11.2582,-0.6869,-1.1287
11.2568,-0.7032,-1.1288
11.2605,-0.6865,-1.1428
11.2589,-0.7032,-1.1411
11.2552,-0.7191,-1.1282
11.2541,-0.7336,-1.1276
11.2601,-0.6865,-1.1491
11.2581,-0.7032,-1.1478
11.2570,-0.7197,-1.1457
11.2556,-0.7358,-1.1456
11.2607,-0.6871,-1.1616
11.2595,-0.7033,-1.1617
11.2620,-0.6869,-1.1782
11.2604,-0.7033,-1.1783
11.2576,-0.7194,-1.1617
11.2563,-0.7358,-1.1624
11.2591,-0.7196,-1.1784
11.2581,-0.7357,-1.1788
11.2526,-0.7485,-1.1260
11.2516,-0.7515,-1.1321
11.2505,-0.7665,-1.1311
11.2542,-0.7513,-1.1455
11.2527,-0.7663,-1.1460
11.2491,-0.7819,-1.1310
11.2474,-0.7974,-1.1303
11.2505,-0.7827,-1.1467
11.2488,-0.7986,-1.1464
11.2548,-0.7517,-1.1623
11.2533,-0.7682,-1.1627
11.2562,-0.7517,-1.1779
11.2549,-0.7675,-1.1766
11.2545,-0.7691,-1.1827
11.2516,-0.7839,-1.1628
11.2508,-0.7995,-1.1627
11.2527,-0.7843,-1.1811
11.2520,-0.8002,-1.1810
11.3895,-0.5946,-1.2316
11.4063,-0.6421,-1.2309
11.3886,-0.6575,-1.2308
11.3871,-0.6756,-1.2319
11.3058,-0.5606,-1.2298
11.3204,-0.5770,-1.2305
11.3018,-0.5761,-1.2300
11.3040,-0.5918,-1.2304
11.3194,-0.6095,-1.2310
11.3041,-0.6087,-1.2303
11.2767,-0.5592,-1.1931
11.2760,-0.5745,-1.1926
11.2785,-0.5609,-1.2099
11.2777,-0.5758,-1.2081
11.2741,-0.5910,-1.1932
11.2729,-0.6068,-1.1934
11.2762,-0.5911,-1.2098
11.2744,-0.6072,-1.2102
11.2825,-0.5616,-1.2242
11.2822,-0.5762,-1.2243
11.2805,-0.5915,-1.2248
11.2788,-0.6067,-1.2248
11.3219,-0.6256,-1.2309
11.3044,-0.6252,-1.2308
11.3029,-0.6418,-1.2313
11.3036,-0.6722,-1.2318
11.2713,-0.6233,-1.1931
11.2692,-0.6399,-1.1940
11.2733,-0.6234,-1.2097
11.2716,-0.6400,-1.2103
11.2679,-0.6564,-1.1946
11.2664,-0.6722,-1.1938
11.2699,-0.6562,-1.2092
11.2693,-0.6729,-1.2084
11.2680,-0.6739,-1.2121
11.2775,-0.6241,-1.2248
11.2769,-0.6394,-1.2248
11.2739,-0.6416,-1.2264
11.2759,-0.6571,-1.2260
11.2731,-0.6568,-1.2259
11.2717,-0.6733,-1.2259
11.3555,-0.5621,-1.2314
11.3397,-0.5784,-1.2311
11.3554,-0.5943,-1.2311
11.3562,-0.6107,-1.2318
11.3380,-0.6102,-1.2314
11.3533,-0.6414,-1.2312
11.3369,-0.6564,-1.2310
11.3893,-0.7072,-1.2334
11.3705,-0.7214,-1.2337
11.3724,-0.7381,-1.2341
11.4218,-0.7391,-1.2327
11.3889,-0.7551,-1.2342
11.3034,-0.6907,-1.2327
11.3028,-0.7057,-1.2333
11.2653,-0.6876,-1.1941
11.2641,-0.7037,-1.1939
11.2681,-0.6892,-1.2066
11.2668,-0.6884,-1.2129
11.2675,-0.7023,-1.2051
11.2663,-0.7040,-1.2123
11.2629,-0.7188,-1.1936
11.2617,-0.7357,-1.1918
11.2618,-0.7364,-1.1999
11.2650,-0.7195,-1.2116
11.2635,-0.7361,-1.2112
11.2710,-0.6886,-1.2263
11.2697,-0.7035,-1.2262
11.2870,-0.7043,-1.2329
11.2685,-0.7197,-1.2269
11.2666,-0.7361,-1.2268
11.2873,-0.7210,-1.2334
11.2847,-0.7373,-1.2340
11.3039,-0.7522,-1.2343
11.3028,-0.7691,-1.2347
11.2614,-0.7507,-1.1916
11.2597,-0.7530,-1.1970
11.2581,-0.7683,-1.1955
11.2619,-0.7520,-1.2116
11.2605,-0.7683,-1.2117
11.2565,-0.7838,-1.1957
11.2550,-0.8002,-1.1960
11.2596,-0.7841,-1.2117
11.2575,-0.8002,-1.2122
11.2659,-0.7519,-1.2274
11.2641,-0.7685,-1.2271
11.2850,-0.7535,-1.2339
11.2858,-0.7692,-1.2345
11.2625,-0.7841,-1.2274
11.2607,-0.8002,-1.2279
11.2849,-0.7845,-1.2350
11.2862,-0.8004,-1.2353
11.3381,-0.7055,-1.2337
11.3383,-0.7219,-1.2339
11.3369,-0.7369,-1.2343
11.3229,-0.7542,-1.2348
11.3197,-0.7701,-1.2354
11.3374,-0.7854,-1.2360
11.3202,-0.8013,-1.2363
11.2235,-0.8080,-0.7934
11.2223,-0.8229,-0.7926
11.2211,-0.8254,-0.7999
11.2236,-0.8098,-0.8130
11.2232,-0.8243,-0.8115
11.2211,-0.8398,-0.7926
11.2197,-0.8547,-0.7906
11.2208,-0.8411,-0.8001
11.2188,-0.8577,-0.7973
11.2219,-0.8405,-0.8118
11.2198,-0.8565,-0.8124
11.2248,-0.8101,-0.8285
11.2242,-0.8257,-0.8283
11.2269,-0.8100,-0.8444
11.2251,-0.8262,-0.8432
11.2226,-0.8409,-0.8282
11.2207,-0.8566,-0.8295
11.2230,-0.8409,-0.8407
11.2229,-0.8420,-0.8489
11.2213,-0.8567,-0.8478
11.2170,-0.8731,-0.7959
11.2152,-0.8887,-0.7959
11.2181,-0.8730,-0.8127
11.2162,-0.8889,-0.8131
11.2136,-0.9042,-0.7962
11.2122,-0.9207,-0.7966
11.2148,-0.9044,-0.8125
11.2129,-0.9205,-0.8126
11.2193,-0.8728,-0.8285
11.2178,-0.8898,-0.8272
11.2165,-0.8887,-0.8343
11.2194,-0.8728,-0.8471
11.2174,-0.8894,-0.8468
11.2161,-0.9039,-0.8255
11.2150,-0.9058,-0.8327
11.2134,-0.9212,-0.8315
11.2161,-0.9055,-0.8472
11.2143,-0.9206,-0.8471
11.2270,-0.8100,-0.8630
11.2255,-0.8262,-0.8621
11.2280,-0.8096,-0.8788
11.2264,-0.8260,-0.8793
11.2238,-0.8424,-0.8623
11.2221,-0.8583,-0.8633
11.2241,-0.8423,-0.8792
11.2228,-0.8585,-0.8791
11.2291,-0.8096,-0.8942
11.2276,-0.8250,-0.8943
11.2203,-0.8731,-0.8626
11.2183,-0.8892,-0.8636
11.2214,-0.8735,-0.8784
11.2192,-0.8894,-0.8766
11.2170,-0.9062,-0.8642
11.2149,-0.9210,-0.8636
11.2268,-0.8267,-0.8997
11.2293,-0.8115,-0.9128
11.2280,-0.8260,-0.9134
11.2250,-0.8424,-0.8980
11.2233,-0.8584,-0.8978
11.2262,-0.8421,-0.9135
11.2246,-0.8584,-0.9133
11.2189,-0.8901,-0.8844
11.2174,-0.9061,-0.8826
11.2154,-0.9226,-0.8815
11.2218,-0.8750,-0.8965
11.2197,-0.8904,-0.8976
11.2226,-0.8749,-0.9138
11.2209,-0.8905,-0.9149
11.2183,-0.9058,-0.8975
11.2167,-0.9225,-0.8980
11.2194,-0.9061,-0.9137
11.2179,-0.9223,-0.9141
11.2100,-0.9376,-0.7974
11.2083,-0.9529,-0.7972
11.2109,-0.9369,-0.8115
11.2101,-0.9384,-0.8192
11.2094,-0.9511,-0.8103
11.2083,-0.9547,-0.8166
11.2061,-0.9675,-0.7975
11.2041,-0.9841,-0.7968
11.2065,-0.9699,-0.8158
11.2045,-0.9844,-0.8149
11.2119,-0.9373,-0.8304
11.2099,-0.9539,-0.8310
11.2123,-0.9370,-0.8471
11.2107,-0.9536,-0.8478
11.2075,-0.9699,-0.8319
11.2049,-0.9857,-0.8323
11.2086,-0.9697,-0.8475
11.2067,-0.9850,-0.8462
11.2030,-0.9995,-0.7952
11.2021,-1.0023,-0.8034
11.2020,-1.0178,-0.7954
11.2010,-1.0168,-0.8006
11.2030,-1.0000,-0.8154
11.2021,-1.0169,-0.8149
11.2026,-1.0327,-0.7951
11.2015,-1.0317,-0.8036
11.2023,-1.0477,-0.7952
11.2023,-1.0330,-0.8153
11.2030,-1.0490,-0.8145
11.2040,-1.0007,-0.8314
11.2033,-1.0166,-0.8317
11.2052,-1.0011,-0.8452
11.2050,-1.0172,-0.8455
11.2041,-1.0333,-0.8315
11.2043,-1.0496,-0.8309
11.2053,-1.0324,-0.8450
11.2052,-1.0503,-0.8453
11.2138,-0.9366,-0.8620
11.2113,-0.9518,-0.8597
11.2054,-0.9874,-0.8523
11.2045,-1.0023,-0.8536
11.2041,-1.0164,-0.8517
11.2050,-1.0330,-0.8528
11.2053,-1.0476,-0.8526
11.2109,-0.9541,-0.8673
11.2138,-0.9380,-0.8813
11.2119,-0.9532,-0.8820
11.2084,-0.9696,-0.8663
11.2068,-0.9858,-0.8662
11.2095,-0.9696,-0.8826
11.2080,-0.9856,-0.8828
11.2145,-0.9380,-0.8988
11.2130,-0.9534,-0.8984
11.2161,-0.9380,-0.9121
11.2148,-0.9400,-0.9191
11.2138,-0.9556,-0.9179
11.2111,-0.9689,-0.8974
11.2092,-0.9849,-0.8967
11.2084,-0.9861,-0.9037
11.2111,-0.9694,-0.9158
11.2093,-0.9850,-0.9167
11.2054,-1.0027,-0.8659
11.2053,-1.0187,-0.8662
11.2063,-1.0021,-0.8824
11.2062,-1.0186,-0.8829
11.2059,-1.0337,-0.8652
11.2065,-1.0491,-0.8651
11.2066,-1.0347,-0.8827
11.2076,-1.0501,-0.8812
11.2079,-1.0025,-0.8959
11.2070,-1.0015,-0.9017
11.2073,-1.0193,-0.8941
11.2067,-1.0179,-0.9022
11.2080,-1.0015,-0.9171
11.2080,-1.0180,-0.9172
11.2077,-1.0352,-0.8954
11.2067,-1.0341,-0.9031
11.2085,-1.0514,-0.8953
11.2074,-1.0502,-0.9028
11.2085,-1.0341,-0.9159
11.2084,-1.0509,-0.9152
11.2305,-0.8121,-0.9297
11.2289,-0.8270,-0.9300
11.2315,-0.8124,-0.9441
11.2310,-0.8111,-0.9526
11.2300,-0.8276,-0.9429
11.2297,-0.8291,-0.9512
11.2275,-0.8424,-0.9300
11.2256,-0.8579,-0.9296
11.2282,-0.8433,-0.9417
11.2275,-0.8448,-0.9503
11.2259,-0.8596,-0.9478
11.2324,-0.8123,-0.9642
11.2307,-0.8281,-0.9634
11.2332,-0.8118,-0.9806
11.2315,-0.8281,-0.9801
11.2285,-0.8442,-0.9644
11.2268,-0.8604,-0.9648
11.2297,-0.8445,-0.9809
11.2282,-0.8606,-0.9801
11.2237,-0.8749,-0.9290
11.2221,-0.8903,-0.9273
11.2218,-0.8924,-0.9339
11.2242,-0.8745,-0.9481
11.2223,-0.8912,-0.9480
11.2203,-0.9073,-0.9328
11.2183,-0.9220,-0.9318
11.2206,-0.9077,-0.9482
11.2187,-0.9229,-0.9484
11.2252,-0.8757,-0.9645
11.2234,-0.8910,-0.9649
11.2262,-0.8757,-0.9786
11.2254,-0.8905,-0.9778
11.2262,-0.8768,-0.9861
11.2241,-0.8918,-0.9831
11.2218,-0.9078,-0.9645
11.2201,-0.9220,-0.9638
11.2230,-0.9078,-0.9834
11.2205,-0.9244,-0.9826
11.2345,-0.8115,-0.9956
11.2330,-0.8272,-0.9941
11.2323,-0.8292,-1.0015
11.2357,-0.8117,-1.0133
11.2337,-0.8279,-1.0139
11.2299,-0.8444,-0.9990
11.2294,-0.8603,-0.9984
11.2318,-0.8438,-1.0141
11.2306,-0.8606,-1.0144
11.2370,-0.8116,-1.0298
11.2352,-0.8276,-1.0308
11.2371,-0.8138,-1.0451
11.2363,-0.8266,-1.0452
11.2346,-0.8297,-1.0505
11.2332,-0.8438,-1.0306
11.2317,-0.8599,-1.0304
11.2331,-0.8447,-1.0490
11.2318,-0.8603,-1.0487
11.2272,-0.8768,-0.9983
11.2257,-0.8923,-0.9982
11.2281,-0.8767,-1.0151
11.2264,-0.8927,-1.0157
11.2241,-0.9075,-0.9987
11.2217,-0.9240,-0.9992
11.2251,-0.9078,-1.0151
11.2233,-0.9235,-1.0152
11.2297,-0.8759,-1.0282
11.2285,-0.8769,-1.0372
11.2280,-0.8927,-1.0272
11.2271,-0.8935,-1.0351
11.2296,-0.8764,-1.0491
11.2278,-0.8931,-1.0494
11.2252,-0.9098,-1.0345
11.2237,-0.9249,-1.0328
11.2261,-0.9097,-1.0500
11.2243,-0.9252,-1.0499
11.2163,-0.9387,-0.9323
11.2145,-0.9552,-0.9328
11.2171,-0.9385,-0.9491
11.2154,-0.9549,-0.9494
11.2120,-0.9713,-0.9335
11.2106,-0.9875,-0.9331
11.2135,-0.9701,-0.9483
11.2110,-0.9858,-0.9462
11.2111,-0.9887,-0.9536
11.2182,-0.9377,-0.9621
11.2179,-0.9391,-0.9683
11.2159,-0.9553,-0.9679
11.2189,-0.9399,-0.9831
11.2174,-0.9547,-0.9833
11.2140,-0.9709,-0.9669
11.2123,-0.9872,-0.9675
11.2152,-0.9706,-0.9837
11.2134,-0.9871,-0.9843
11.2095,-1.0025,-0.9342
11.2086,-1.0178,-0.9342
11.2105,-1.0190,-0.9463
11.2098,-1.0027,-0.9523
11.2100,-1.0175,-0.9527
11.2086,-1.0338,-0.9327
11.2094,-1.0506,-0.9322
11.2107,-1.0342,-0.9458
11.2117,-1.0509,-0.9475
11.2100,-1.0336,-0.9526
11.2109,-1.0035,-0.9672
11.2106,-1.0196,-0.9669
11.2123,-1.0036,-0.9838
11.2120,-1.0198,-0.9837
11.2117,-1.0349,-0.9664
11.2124,-1.0508,-0.9658
11.2129,-1.0360,-0.9832
11.2132,-1.0515,-0.9828
11.2204,-0.9402,-0.9990
11.2189,-0.9561,-0.9998
11.2217,-0.9400,-1.0123
11.2213,-0.9414,-1.0193
11.2207,-0.9554,-1.0116
11.2190,-0.9576,-1.0190
11.2163,-0.9707,-0.9981
11.2154,-0.9727,-1.0057
11.2152,-0.9853,-0.9976
11.2142,-0.9885,-1.0039
11.2166,-0.9729,-1.0176
11.2152,-0.9889,-1.0180
11.2219,-0.9405,-1.0331
11.2200,-0.9567,-1.0338
11.2229,-0.9404,-1.0497
11.2210,-0.9567,-1.0507
11.2183,-0.9732,-1.0339
11.2165,-0.9890,-1.0343
11.2194,-0.9724,-1.0487
11.2178,-0.9876,-1.0472
11.2169,-0.9898,-1.0541
11.2128,-1.0032,-1.0018
11.2125,-1.0182,-1.0018
11.2143,-1.0038,-1.0174
11.2138,-1.0193,-1.0173
11.2140,-1.0365,-0.9959
11.2138,-1.0351,-1.0038
11.2141,-1.0528,-0.9961
11.2137,-1.0518,-1.0047
11.2148,-1.0356,-1.0174
11.2150,-1.0521,-1.0168
11.2151,-1.0050,-1.0349
11.2147,-1.0202,-1.0340
11.2166,-1.0237,-1.0469
11.2149,-1.0356,-1.0346
11.2153,-1.0518,-1.0333
11.2166,-1.0372,-1.0464
11.2175,-1.0530,-1.0451
11.2160,-1.0057,-1.0526
11.2152,-1.0205,-1.0528
11.2156,-1.0369,-1.0544
11.2154,-1.0515,-1.0527
11.2025,-1.0641,-0.7955
11.2032,-1.0813,-0.7957
11.2029,-1.0638,-0.8139
11.2033,-1.0795,-0.8137
11.2038,-1.0961,-0.7955
11.2044,-1.1112,-0.7945
11.2047,-1.0969,-0.8141
11.2055,-1.1114,-0.8078
11.2044,-1.1132,-0.8146
11.2041,-1.0655,-0.8308
11.2046,-1.0806,-0.8294
11.2054,-1.0662,-0.8449
11.2058,-1.0811,-0.8457
11.2057,-1.0968,-0.8293
11.2065,-1.1137,-0.8290
11.2070,-1.0969,-0.8459
11.2072,-1.1131,-0.8461
11.2042,-1.1283,-0.7946
11.2040,-1.1451,-0.7946
11.2046,-1.1280,-0.8126
11.2055,-1.1454,-0.8075
11.2054,-1.1444,-0.8153
11.2049,-1.1608,-0.7941
11.2060,-1.1770,-0.7931
11.2068,-1.1612,-0.8096
11.2078,-1.1769,-0.8090
11.2069,-1.1291,-0.8283
11.2076,-1.1448,-0.8280
11.2076,-1.1294,-0.8459
11.2083,-1.1450,-0.8439
11.2080,-1.1615,-0.8272
11.2094,-1.1784,-0.8208
11.2093,-1.1774,-0.8282
11.2095,-1.1614,-0.8435
11.2102,-1.1777,-0.8428
11.2085,-1.1126,-0.8583
11.2091,-1.1303,-0.8596
11.2098,-1.1448,-0.8593
11.2104,-1.1617,-0.8599
11.2112,-1.1781,-0.8598
11.2049,-1.0648,-0.8536
11.2060,-1.0657,-0.8646
11.2070,-1.0822,-0.8640
11.2068,-1.0653,-0.8815
11.2080,-1.0820,-0.8806
11.2079,-1.0974,-0.8645
11.2083,-1.1126,-0.8652
11.2092,-1.0985,-0.8799
11.2093,-1.1136,-0.8779
11.2082,-1.0651,-0.8959
11.2077,-1.0683,-0.9038
11.2091,-1.0817,-0.8970
11.2088,-1.0674,-0.9157
11.2103,-1.0827,-0.9151
11.2098,-1.0987,-0.8966
11.2105,-1.1148,-0.8953
11.2120,-1.1007,-0.9085
11.2111,-1.0973,-0.9153
11.2119,-1.1157,-0.9088
11.2114,-1.1136,-0.9165
11.2082,-1.1285,-0.8665
11.2100,-1.1298,-0.8780
11.2106,-1.1463,-0.8779
11.2115,-1.1612,-0.8778
11.2123,-1.1773,-0.8783
11.2115,-1.1303,-0.8946
11.2118,-1.1463,-0.8945
11.2125,-1.1302,-0.9083
11.2120,-1.1311,-0.9162
11.2130,-1.1464,-0.9100
11.2128,-1.1619,-0.8944
11.2136,-1.1781,-0.8935
11.2137,-1.1624,-0.9105
11.2149,-1.1778,-0.9096
11.2074,-1.1928,-0.7917
11.2089,-1.1927,-0.8085
11.2093,-1.2024,-0.8071
11.2109,-1.1955,-0.8218
11.2096,-1.1924,-0.8280
11.2113,-1.1936,-0.8422
11.2125,-1.1938,-0.8588
11.2145,-1.1940,-0.8737
11.2169,-1.2043,-0.8745
11.2135,-1.1952,-0.8789
11.2151,-1.1950,-0.8923
11.2161,-1.1946,-0.9090
11.2100,-1.0669,-0.9318
11.2115,-1.0833,-0.9312
11.2110,-1.0672,-0.9471
11.2122,-1.0840,-0.9474
11.2122,-1.0986,-0.9297
11.2126,-1.1141,-0.9295
11.2129,-1.1002,-0.9474
11.2136,-1.1153,-0.9460
11.2122,-1.0668,-0.9648
11.2130,-1.0827,-0.9653
11.2132,-1.0665,-0.9815
11.2140,-1.0828,-0.9814
11.2152,-1.1163,-0.9601
11.2136,-1.0997,-0.9663
11.2147,-1.1148,-0.9669
11.2150,-1.0996,-0.9811
11.2158,-1.1163,-0.9805
11.2132,-1.1310,-0.9294
11.2141,-1.1464,-0.9281
11.2144,-1.1310,-0.9459
11.2154,-1.1469,-0.9449
11.2150,-1.1630,-0.9285
11.2165,-1.1793,-0.9216
11.2158,-1.1782,-0.9294
11.2161,-1.1627,-0.9441
11.2172,-1.1788,-0.9435
11.2162,-1.1311,-0.9604
11.2167,-1.1475,-0.9602
11.2150,-1.1313,-0.9679
11.2165,-1.1320,-0.9800
11.2171,-1.1474,-0.9788
11.2173,-1.1629,-0.9605
11.2182,-1.1794,-0.9603
11.2204,-1.1815,-0.9739
11.2177,-1.1629,-0.9788
11.2192,-1.1770,-0.9793
11.2142,-1.0683,-0.9975
11.2135,-1.0683,-1.0036
11.2150,-1.0835,-0.9972
11.2144,-1.0684,-1.0164
11.2159,-1.0833,-1.0155
11.2160,-1.0997,-0.9974
11.2167,-1.1159,-0.9973
11.2164,-1.0989,-1.0162
11.2180,-1.1157,-1.0095
11.2174,-1.1155,-1.0164
11.2155,-1.0679,-1.0330
11.2172,-1.0848,-1.0324
11.2171,-1.0688,-1.0460
11.2176,-1.0855,-1.0468
11.2170,-1.1003,-1.0313
11.2183,-1.1157,-1.0302
11.2186,-1.1011,-1.0475
11.2192,-1.1165,-1.0471
11.2158,-1.0667,-1.0540
11.2163,-1.0820,-1.0540
11.2180,-1.1326,-0.9967
11.2185,-1.1480,-0.9953
11.2187,-1.1332,-1.0103
11.2182,-1.1322,-1.0169
11.2199,-1.1489,-1.0114
11.2193,-1.1640,-0.9950
11.2207,-1.1800,-0.9931
11.2206,-1.1640,-1.0114
11.2217,-1.1803,-1.0107
11.2189,-1.1323,-1.0294
11.2202,-1.1491,-1.0297
11.2200,-1.1320,-1.0465
11.2210,-1.1489,-1.0461
11.2213,-1.1645,-1.0296
11.2229,-1.1820,-1.0233
11.2224,-1.1799,-1.0308
11.2222,-1.1648,-1.0449
11.2238,-1.1805,-1.0444
11.2178,-1.1956,-0.9241
11.2162,-1.1913,-0.9295
11.2178,-1.1943,-0.9424
11.2191,-1.1950,-0.9595
11.2207,-1.1968,-0.9742
11.2273,-1.2058,-0.9715
11.2198,-1.1926,-0.9813
11.2219,-1.1949,-0.9942
11.2233,-1.1962,-1.0096
11.2243,-1.1974,-1.0250
11.2249,-1.1958,-1.0438
11.2378,-0.8140,-1.0640
11.2359,-0.8301,-1.0651
11.2402,-0.8140,-1.0805
11.2378,-0.8300,-1.0816
11.2342,-0.8452,-1.0649
11.2328,-0.8599,-1.0650
11.2356,-0.8462,-1.0813
11.2338,-0.8612,-1.0805
11.2420,-0.8138,-1.0972
11.2400,-0.8287,-1.0967
11.2442,-0.8116,-1.1095
11.2378,-0.8465,-1.0932
11.2435,-0.8148,-1.1162
11.2418,-0.8304,-1.1149
11.2369,-0.8460,-1.1002
11.2358,-0.8624,-1.0994
11.2395,-0.8460,-1.1148
11.2383,-0.8623,-1.1147
11.2309,-0.8761,-1.0653
11.2296,-0.8930,-1.0659
11.2330,-0.8756,-1.0804
11.2307,-0.8915,-1.0782
11.2277,-0.9090,-1.0658
11.2258,-0.9255,-1.0650
11.2303,-0.8930,-1.0848
11.2250,-0.9260,-1.0712
11.2287,-0.9105,-1.0844
11.2269,-0.9264,-1.0839
11.2345,-0.8780,-1.0993
11.2329,-0.8929,-1.0989
11.2368,-0.8784,-1.1152
11.2346,-0.8937,-1.1156
11.2305,-0.9090,-1.0995
11.2284,-0.9257,-1.1003
11.2320,-0.9092,-1.1161
11.2305,-0.9258,-1.1160
11.2454,-0.8139,-1.1307
11.2439,-0.8297,-1.1307
